ncols        101
nrows        139
xllcorner    295129.163634492725
yllcorner    1624787.130512699485
cellsize     30.339281122069
 105 103 101 95 89 87 84 82 81 79 76 74 73 72 72 71 70 70 71 70 71 78 84 85 88 92 96 98 100 98 100 103 105 105 105 102 99 103 106 108 111 112 115 112 110 112 115 116 116 115 115 115 115 113 112 115 112 112 112 113 111 111 113 114 112 114 113 111 110 110 110 109 108 106 103 101 103 104 99 94 92 88 80 78 69 60 57 53 51 49 43 40 36 31 33 29 23 20 18 18 19
 107 106 104 98 91 88 89 86 83 79 79 78 76 74 73 71 69 69 66 66 69 74 79 84 88 93 95 96 94 93 94 97 98 100 99 98 101 103 105 106 108 111 111 110 112 115 118 118 116 115 115 116 114 111 111 113 113 112 113 112 108 107 108 107 112 112 111 110 109 108 109 108 107 104 99 97 98 99 95 91 89 85 79 78 72 63 61 51 46 43 41 38 31 28 30 28 23 21 18 19 21
 106 105 103 99 95 91 91 88 85 82 82 81 78 75 72 70 69 67 67 65 65 68 73 81 88 90 90 89 87 89 91 93 96 96 95 95 101 103 104 103 103 106 108 112 115 117 118 118 116 115 115 114 112 110 111 113 113 112 111 108 106 105 108 107 109 111 111 108 106 106 107 106 106 102 98 95 95 95 92 86 84 83 79 80 74 72 67 57 46 40 35 32 28 26 26 24 22 21 21 20 18
 102 104 102 97 93 92 91 89 86 84 83 81 78 75 73 71 68 67 67 66 65 66 71 78 83 84 86 84 83 87 89 90 93 93 92 95 99 101 101 100 100 102 108 111 113 114 115 115 113 113 113 112 112 111 112 113 112 110 108 106 104 105 104 105 108 111 109 107 105 105 105 103 102 100 97 94 93 92 89 87 84 79 78 77 72 69 69 59 46 38 34 31 29 27 25 22 23 24 23 20 15
 100 102 101 95 88 87 88 87 86 83 81 79 77 74 73 71 68 66 67 67 66 66 69 72 74 77 81 80 80 83 85 88 91 92 91 93 96 98 98 96 96 99 106 110 111 111 110 109 109 110 111 112 111 111 112 111 111 107 106 106 104 102 103 104 106 109 107 107 106 104 103 102 100 98 95 93 92 91 89 89 85 79 76 73 70 67 66 58 46 39 36 32 31 30 26 23 24 25 21 18 17
 96 98 98 92 86 85 86 84 83 81 80 79 76 73 72 71 68 65 67 70 68 68 68 70 70 72 76 78 78 80 83 87 90 91 92 91 93 95 95 94 94 98 102 107 107 107 106 104 105 107 109 110 110 109 109 110 108 105 106 105 102 102 102 103 103 104 107 108 107 104 102 101 99 94 91 88 89 88 87 88 84 76 73 71 68 67 62 54 47 40 35 30 31 29 26 24 24 23 19 18 20
 94 96 96 92 87 84 84 83 82 80 78 75 73 72 71 71 67 66 71 71 70 72 74 76 72 71 74 77 78 78 82 86 88 89 91 92 92 92 93 94 93 93 98 105 105 104 102 101 101 103 106 110 111 109 108 109 108 105 104 103 102 102 101 99 101 102 106 107 106 103 102 101 96 94 89 86 85 82 80 82 81 74 68 68 69 66 59 51 45 38 32 33 30 27 28 27 26 23 19 20 20
 91 93 93 89 83 82 83 83 81 78 74 71 69 69 70 70 67 67 72 69 73 80 85 87 84 80 80 82 80 81 82 85 86 86 88 90 91 89 93 94 91 91 96 103 105 102 99 99 100 102 106 111 111 108 107 109 108 104 104 102 101 101 98 96 98 101 102 104 104 103 100 98 97 95 89 83 79 74 70 71 73 68 64 66 70 67 59 47 39 33 32 32 28 27 28 28 26 21 19 18 17
 88 90 86 84 81 81 81 81 82 80 74 69 68 71 72 71 68 68 72 74 79 87 95 97 95 93 94 89 86 86 84 83 82 83 84 86 86 89 92 91 90 90 95 99 101 100 99 100 101 103 106 110 110 108 107 109 107 104 102 100 99 98 95 94 95 97 100 103 105 103 100 97 95 93 86 81 75 67 63 63 64 63 60 63 66 64 56 44 38 33 34 31 28 27 27 27 24 21 19 16 14
 81 82 82 81 80 79 78 80 88 85 75 69 74 75 73 72 71 72 76 79 83 92 100 101 100 99 100 97 95 93 88 84 81 80 81 83 82 85 88 89 89 91 93 94 97 97 99 102 102 104 106 109 110 109 108 107 105 102 100 100 99 95 92 91 91 94 99 103 105 104 101 97 96 90 83 80 76 68 63 64 61 57 51 51 54 56 48 41 37 35 34 31 28 26 26 26 25 21 18 15 14
 74 75 76 77 78 77 77 81 90 76 70 69 74 73 72 71 71 75 77 81 87 94 99 99 98 99 102 103 102 99 91 88 83 80 80 82 81 81 86 89 90 93 96 97 97 96 97 100 102 104 106 109 109 108 107 108 105 100 99 100 100 97 92 87 89 93 98 102 104 105 103 100 96 90 85 83 80 77 72 67 64 57 48 43 47 48 44 39 36 34 32 30 26 24 25 27 25 22 16 15 15
 71 71 72 74 74 75 76 78 82 71 67 67 71 72 70 68 71 75 77 85 90 94 96 96 96 98 103 104 104 102 97 93 90 85 85 86 83 81 85 89 91 93 98 100 98 95 96 98 102 104 106 109 109 107 107 108 103 96 97 99 99 97 92 86 88 94 99 102 103 104 104 101 97 91 88 86 84 81 77 76 69 59 46 41 42 43 40 36 31 29 30 29 26 23 27 27 25 21 17 15 16
 68 68 69 70 68 67 67 72 76 69 68 67 68 69 68 67 69 71 77 83 86 89 91 92 93 97 101 102 102 103 102 99 97 92 91 92 88 85 86 88 89 91 95 97 97 96 96 98 101 103 105 107 107 105 105 104 98 91 92 95 95 93 88 89 92 96 100 102 103 104 104 101 97 92 90 87 84 81 78 74 67 57 48 41 37 39 36 32 29 27 28 28 27 25 25 26 24 22 19 16 17
 67 67 67 67 67 67 67 67 75 70 68 68 68 68 67 68 68 70 74 79 83 85 85 87 90 94 98 99 96 98 98 96 95 94 94 93 91 89 89 89 87 87 89 93 94 96 96 97 100 103 105 106 104 102 101 98 94 90 88 89 89 86 83 87 95 98 101 103 103 103 103 101 97 93 91 89 85 81 75 71 62 56 52 43 37 36 35 32 29 25 25 26 26 24 24 25 24 21 18 16 16
 67 67 67 67 67 67 67 67 75 69 67 68 68 68 68 69 70 71 74 78 82 85 87 88 90 92 95 96 93 91 89 88 89 93 92 93 94 94 94 91 88 86 87 91 94 94 95 96 100 102 103 103 102 101 99 96 93 92 86 84 84 82 81 88 96 99 101 102 102 101 99 97 94 91 91 89 86 80 75 69 62 56 50 43 36 34 33 30 28 24 23 25 25 25 25 25 23 20 15 13 14
 67 67 67 67 67 67 67 67 67 68 66 65 65 65 68 70 72 74 77 82 84 88 89 90 90 90 92 94 92 89 85 83 83 89 85 88 94 95 95 94 91 88 87 91 90 90 92 96 99 98 98 99 100 99 96 95 94 93 87 83 82 81 81 86 93 99 100 99 99 99 97 93 89 90 88 86 82 79 75 69 65 59 54 46 39 34 30 28 25 23 23 23 24 24 25 24 21 19 16 13 13
 67 67 67 67 67 67 67 67 67 68 61 62 62 63 66 69 75 77 82 85 87 89 91 91 90 90 90 91 93 92 85 78 78 79 79 82 88 92 92 93 92 88 90 92 90 89 90 93 94 94 95 97 98 96 95 95 95 93 90 86 80 78 78 81 88 94 95 94 94 96 94 90 88 87 82 81 80 79 73 70 67 61 55 46 40 37 32 28 24 24 22 21 20 23 23 22 19 19 17 16 16
 67 67 67 67 67 67 67 68 68 68 61 65 65 63 63 70 75 80 84 86 89 91 91 91 90 89 90 90 91 91 85 77 74 75 76 77 83 86 87 93 92 91 93 94 91 90 91 92 94 95 98 99 99 97 96 96 96 94 90 83 74 72 71 75 82 87 88 89 91 92 91 90 90 83 80 80 79 76 71 67 64 60 54 47 41 38 36 31 26 26 24 21 21 22 22 20 18 18 18 19 19
 67 67 67 67 67 67 68 68 67 65 67 70 69 65 65 73 81 83 85 85 87 89 89 89 89 89 90 88 87 86 84 78 74 71 70 74 80 82 87 86 88 92 93 94 93 92 93 95 95 99 100 103 102 101 99 97 97 96 89 80 73 70 68 73 78 79 83 86 90 91 91 91 88 83 78 77 76 70 66 64 62 58 52 49 42 37 36 30 28 28 26 22 22 23 22 20 18 15 15 20 18
 67 67 67 67 67 68 71 72 70 70 71 72 73 69 69 77 83 85 84 83 84 85 86 87 88 88 88 87 83 82 81 79 76 72 68 70 80 82 82 82 85 89 91 95 96 95 96 97 98 100 101 102 104 103 100 99 98 95 85 77 73 71 70 73 74 73 77 82 89 93 92 90 87 83 76 73 69 65 62 57 56 52 49 45 38 35 34 28 28 28 25 23 22 21 21 23 21 15 15 17 16
 67 67 67 68 68 69 72 72 72 73 73 74 75 73 75 80 84 83 83 81 83 83 83 84 85 84 83 83 82 80 78 79 78 74 68 70 75 76 75 78 82 86 90 95 98 99 97 97 98 99 99 102 103 103 100 96 95 90 81 74 71 67 67 74 72 71 73 79 87 92 91 89 87 81 75 72 69 66 58 49 47 49 47 39 32 34 32 28 26 25 22 22 22 20 22 28 26 17 16 16 16
 67 73 74 73 70 71 72 72 74 75 76 78 80 80 83 86 85 83 81 81 82 80 81 82 81 80 82 84 83 75 76 78 77 74 68 64 70 69 70 76 80 83 87 90 95 97 92 91 94 96 97 100 98 97 95 88 85 83 79 72 67 61 64 71 71 68 69 76 84 88 88 88 86 79 72 69 69 65 57 49 43 44 43 36 31 29 29 24 23 22 21 22 22 21 22 30 30 21 17 14 17
 71 73 72 70 71 73 73 72 74 76 78 80 81 83 84 84 83 81 80 80 78 77 78 78 78 79 80 81 80 74 72 73 77 73 66 62 63 65 68 73 75 79 82 85 88 89 88 87 89 92 93 94 92 91 88 81 77 76 76 72 65 57 59 65 65 62 64 70 77 82 84 84 82 77 72 69 65 60 55 48 41 39 39 35 30 28 25 24 23 23 23 23 21 20 22 26 27 20 15 14 16
 72 72 69 68 70 75 74 73 75 76 77 79 80 80 79 78 78 78 78 77 76 75 76 76 76 77 76 74 72 69 72 73 71 68 64 60 60 62 65 68 71 73 77 79 80 82 82 82 83 87 89 91 86 85 80 74 70 71 73 71 62 56 55 58 59 58 59 63 70 75 79 79 77 75 73 68 64 60 55 49 43 40 38 34 30 27 26 24 24 25 25 23 21 21 23 25 25 20 18 14 15
 72 73 72 70 71 74 73 73 75 76 77 78 78 78 77 76 76 77 76 76 75 74 75 75 74 74 73 72 69 69 67 66 65 64 62 58 56 57 61 63 64 69 70 73 75 76 76 78 78 81 87 88 83 80 77 71 68 68 68 65 61 55 51 53 58 59 58 59 63 67 70 75 76 76 73 71 68 64 61 53 47 44 40 34 28 27 25 24 24 25 25 23 22 23 26 28 26 21 17 14 15
 72 73 73 71 71 72 72 73 74 75 76 77 77 77 77 76 77 77 77 76 75 75 75 74 72 71 73 72 69 67 66 65 64 63 61 59 55 54 59 58 60 63 65 69 71 72 72 74 75 79 87 87 82 80 76 71 68 66 64 60 59 54 52 57 63 62 56 56 58 59 65 73 77 76 72 70 66 63 60 55 48 45 41 34 31 28 25 24 23 24 24 23 23 23 25 28 27 21 15 13 13
 73 73 74 71 70 71 73 74 75 77 77 76 76 76 75 75 76 78 77 76 75 75 74 73 70 71 73 70 67 64 62 62 62 62 61 58 56 55 55 55 56 60 61 65 68 69 69 72 76 80 87 87 83 78 75 72 71 67 62 57 55 52 51 60 65 60 54 53 53 54 60 69 75 76 71 66 62 60 54 53 48 43 38 34 32 29 27 25 24 24 23 22 22 20 22 25 24 14 13 11 10
 71 71 72 72 71 73 74 75 78 80 79 77 76 76 73 74 76 76 75 74 73 74 75 72 70 71 71 68 63 59 58 60 61 61 60 58 57 56 54 53 55 57 58 61 65 66 67 70 74 79 84 85 83 77 74 72 70 66 60 53 52 49 49 56 61 57 52 50 48 50 56 64 71 75 68 62 57 53 50 48 45 38 34 31 30 30 28 26 25 23 22 22 21 19 19 22 21 12 10 9 10
 69 70 72 72 71 73 77 78 79 80 79 77 78 75 73 75 76 75 74 73 73 75 75 72 74 78 74 66 61 57 57 59 61 62 60 60 59 58 55 53 55 58 58 59 61 62 64 67 73 77 82 84 81 76 71 68 67 66 59 54 51 48 49 53 59 57 53 47 46 49 55 62 72 74 69 59 55 52 48 47 45 36 31 28 27 28 26 24 24 22 22 24 22 20 20 20 14 11 8 9 11
 70 72 73 73 71 73 79 80 79 78 76 77 78 76 74 76 75 74 72 73 73 75 76 75 83 84 78 69 61 55 55 59 61 62 62 61 60 57 54 53 54 56 57 58 59 60 62 68 73 79 84 85 80 73 69 66 65 62 60 55 51 48 47 54 58 58 51 45 45 48 54 61 70 79 75 64 57 52 48 45 43 35 32 29 27 26 24 21 21 20 21 23 21 20 20 17 14 11 11 12 12
 72 74 74 73 72 75 79 79 77 75 74 75 77 76 75 75 74 72 71 73 73 74 76 79 85 86 83 74 64 56 56 58 60 62 62 61 59 56 53 51 52 53 55 57 56 56 58 65 72 78 83 85 80 73 68 66 63 63 61 57 52 46 45 51 55 52 49 47 45 46 51 60 71 79 78 68 57 51 45 41 37 34 32 29 26 26 22 20 19 21 22 22 20 20 20 16 16 15 15 13 10
 72 74 73 72 72 74 77 77 76 75 74 74 75 75 75 75 74 72 71 70 71 74 78 85 87 86 84 80 69 58 56 57 59 61 62 60 59 58 54 50 49 50 53 53 52 51 54 61 68 74 81 85 82 71 68 65 62 61 60 55 50 44 42 44 46 47 47 48 45 44 49 58 68 75 76 65 56 48 42 36 33 32 30 27 24 23 21 19 19 22 23 22 20 20 17 16 17 18 16 13 11
 71 72 71 70 71 74 75 76 75 73 74 74 74 75 75 75 74 72 70 70 71 76 82 85 87 87 86 81 71 62 57 56 58 60 60 58 58 58 55 46 46 48 49 49 48 49 52 57 65 71 79 83 80 73 68 63 59 59 57 53 49 45 41 40 41 41 44 45 42 42 47 58 65 73 70 64 57 48 39 33 31 30 29 24 21 22 21 20 20 21 24 21 19 19 17 16 16 16 14 15 14
 72 71 70 71 73 76 75 74 73 72 73 74 73 75 75 75 75 74 71 71 72 75 82 84 87 87 85 81 72 62 54 55 58 59 59 58 57 56 52 44 44 45 46 48 47 48 50 57 63 72 78 81 80 75 69 63 60 59 58 54 52 47 42 39 38 38 37 40 39 39 42 50 63 71 71 66 60 50 40 35 32 29 27 23 23 24 23 21 20 21 23 21 20 17 15 13 13 13 14 14 15
 70 70 70 72 76 76 74 74 74 72 72 73 75 75 75 75 75 74 72 72 73 79 83 87 88 88 88 82 72 60 52 54 57 58 58 58 57 56 52 47 44 44 45 46 47 48 54 61 64 74 82 81 80 76 71 65 63 62 61 58 53 49 44 42 40 38 35 35 37 37 36 40 57 67 71 67 61 51 42 37 32 26 24 24 25 24 22 20 20 21 22 22 18 16 13 10 11 13 13 14 15
 70 70 72 74 75 74 73 75 74 72 73 74 75 76 76 76 75 74 72 73 73 75 80 87 90 89 87 81 74 62 53 52 54 56 57 57 58 56 53 50 48 46 44 43 45 49 58 62 64 73 81 81 81 77 74 69 66 66 65 61 56 53 52 48 42 38 35 34 34 34 35 39 51 63 66 64 58 50 42 37 30 25 24 24 22 21 20 19 20 20 22 23 19 16 13 11 12 13 13 13 14
 70 71 72 72 71 72 73 73 74 74 73 74 75 75 75 75 75 73 73 72 73 71 76 84 88 88 85 82 76 63 54 52 54 56 56 57 58 57 55 53 51 48 43 41 42 48 54 57 61 68 77 78 79 77 76 72 69 66 67 62 60 59 57 51 44 40 38 35 34 34 36 38 47 57 60 59 54 46 39 33 29 24 23 21 20 21 20 20 20 20 21 21 19 17 16 15 14 14 12 13 12
 71 72 72 69 70 72 71 71 74 74 75 75 74 74 74 74 74 73 72 73 72 69 73 80 86 86 86 84 78 65 57 54 55 56 56 56 57 58 56 56 52 46 43 41 41 45 50 52 58 65 71 74 76 76 74 73 72 71 71 70 66 64 60 55 48 45 44 39 36 37 36 36 42 50 50 48 46 41 33 30 27 23 22 21 22 22 22 20 20 19 20 18 18 18 17 15 16 14 14 13 11
 70 72 72 70 69 71 70 71 74 76 75 75 74 73 73 72 72 73 73 72 72 69 68 73 79 84 85 84 78 68 58 56 56 55 53 53 56 57 56 54 50 43 41 40 40 43 48 53 58 64 67 71 74 74 75 74 76 76 75 73 70 65 61 59 55 53 48 42 39 37 35 33 38 41 41 39 39 37 31 29 26 24 23 23 22 22 22 22 20 19 18 17 18 17 15 14 16 16 16 15 10
 69 71 72 69 67 68 70 71 74 76 75 74 74 73 71 71 70 73 71 69 69 68 66 67 72 74 77 77 74 67 57 56 56 54 51 52 55 56 54 52 45 40 39 39 38 41 48 53 59 62 67 72 74 74 73 75 78 79 76 72 69 65 62 62 63 59 51 45 41 39 36 34 35 35 35 34 32 31 31 30 26 24 23 22 21 22 23 22 20 20 19 18 17 16 14 14 14 15 16 15 10
 71 71 70 70 67 68 69 70 74 75 73 72 73 73 71 69 67 70 69 67 66 64 63 63 64 65 66 68 67 62 56 55 56 53 50 50 52 52 48 47 42 39 38 37 37 39 47 50 54 58 64 69 72 72 72 73 76 77 74 70 66 64 62 61 62 59 53 46 44 41 39 37 36 34 31 29 27 28 30 28 24 22 21 20 20 21 21 21 20 19 19 18 17 14 13 13 12 11 13 12 11
 72 71 71 70 68 68 69 70 72 73 72 71 72 72 69 67 65 68 68 66 62 61 60 59 59 59 61 63 61 57 53 52 54 51 50 48 48 46 43 43 40 38 36 36 36 39 46 49 51 56 61 66 69 70 71 71 73 74 73 70 68 65 61 60 60 58 54 47 45 44 43 40 38 35 31 27 25 26 26 24 23 22 20 20 19 18 19 20 18 18 17 17 15 13 13 13 11 9 10 10 12
 74 71 71 72 70 69 69 69 70 70 70 70 70 69 67 65 62 64 64 62 59 58 56 55 55 55 55 55 54 49 47 49 50 48 48 47 46 44 43 42 40 36 33 34 36 41 47 52 54 58 63 68 67 69 70 70 72 73 72 72 70 66 61 59 58 55 51 48 47 47 46 43 41 38 33 27 26 25 24 22 24 23 21 19 19 19 21 21 16 15 15 14 14 13 12 13 11 9 10 12 14
 74 72 72 72 71 69 68 68 66 66 67 68 67 65 64 63 59 58 58 58 56 55 53 52 53 52 51 51 49 45 45 46 45 46 47 48 47 47 46 44 40 36 33 34 36 40 45 52 56 59 63 67 67 67 67 69 72 71 70 70 69 63 59 56 54 50 47 46 47 47 47 45 42 39 34 27 25 24 23 23 24 23 19 18 19 21 22 20 17 16 15 13 13 13 13 13 13 12 12 14 14
 76 75 73 73 71 69 68 66 65 66 65 66 64 63 64 58 58 56 55 56 55 53 53 51 50 50 49 48 46 44 44 44 46 48 50 51 46 45 45 42 38 36 33 33 35 39 42 49 56 60 63 66 67 64 62 64 68 69 68 69 67 61 57 55 52 46 44 44 45 46 46 44 41 38 32 27 24 22 22 23 22 21 20 19 21 20 19 19 17 17 15 13 13 14 15 15 15 13 12 13 15
 78 75 74 73 71 69 68 65 65 66 66 65 63 64 66 59 57 55 54 54 53 53 53 51 50 48 45 42 42 44 46 50 52 55 55 53 46 42 39 37 36 32 30 32 34 38 42 49 54 58 63 65 64 60 58 60 64 66 67 67 64 59 58 55 49 44 42 43 43 45 43 42 40 36 29 26 22 19 21 22 21 20 20 21 21 20 16 16 16 16 15 15 14 15 15 15 15 13 13 14 15
 72 72 71 72 71 71 69 65 64 66 67 64 62 63 64 61 57 54 54 53 53 54 55 53 49 46 44 41 40 44 47 53 55 56 55 53 48 42 37 35 34 32 31 32 36 38 43 48 53 59 63 63 60 58 58 60 64 67 67 65 61 56 56 53 47 43 41 41 42 44 43 40 38 32 25 23 21 19 21 22 20 20 19 20 20 16 15 15 15 16 15 14 13 14 15 14 14 14 14 13 15
 67 67 69 70 72 73 70 67 66 67 66 64 62 63 62 60 57 55 55 54 52 52 54 52 48 45 44 41 41 40 43 50 54 56 56 54 48 40 36 36 37 36 34 33 37 40 41 45 53 58 62 61 58 56 57 61 66 68 67 65 61 55 52 47 44 41 40 39 40 43 42 38 35 27 23 23 20 20 21 22 21 20 19 18 18 17 16 16 15 17 16 13 12 14 15 13 11 14 13 12 14
 66 66 69 72 72 73 72 72 72 70 67 64 64 64 61 57 57 56 55 53 49 48 51 52 48 45 42 40 39 39 43 51 54 55 53 50 45 37 39 40 41 37 35 31 34 39 41 44 50 55 58 60 56 54 56 60 63 65 63 63 60 54 49 44 41 38 38 36 36 37 38 37 32 26 24 23 20 21 22 21 21 21 19 16 16 17 18 17 16 16 15 13 12 15 17 12 13 15 15 12 13
 66 66 68 70 70 72 72 74 73 72 69 67 64 65 62 57 55 54 53 52 47 45 47 48 49 45 41 38 38 40 46 52 55 55 48 46 42 40 42 44 42 38 35 33 35 38 41 45 48 53 57 58 56 54 55 57 60 61 61 61 57 53 49 44 40 40 38 35 32 32 36 33 30 26 25 23 21 22 21 21 21 22 19 16 16 16 17 16 15 14 15 13 13 15 15 14 14 16 16 15 15
 64 64 66 66 68 70 71 72 72 71 70 68 62 62 59 55 51 50 51 50 46 43 42 44 45 42 40 37 36 38 42 46 51 50 46 43 41 42 45 45 40 36 34 35 36 37 41 45 49 54 58 59 57 56 56 56 58 61 62 59 56 53 50 47 46 43 40 36 33 33 32 29 26 21 19 20 21 21 21 20 23 23 20 16 16 15 15 13 12 13 14 13 13 13 13 13 13 13 14 15 16
 63 64 65 65 66 68 69 69 68 68 67 60 58 58 55 52 49 48 50 48 45 43 42 42 40 38 38 36 35 36 36 39 40 42 41 41 42 45 47 44 38 35 32 33 34 35 38 46 52 58 60 61 59 58 57 57 58 59 57 55 53 52 49 46 44 43 41 39 36 34 29 26 22 19 17 18 19 21 21 21 21 21 16 16 14 13 13 12 11 12 14 13 13 13 12 11 12 12 12 15 15
 64 65 65 64 64 65 67 67 66 66 62 58 56 56 57 53 51 50 49 48 45 44 43 41 38 37 37 37 38 36 35 35 36 35 37 40 45 47 49 44 41 36 32 33 36 35 37 46 52 57 61 62 60 57 54 55 55 53 53 50 48 47 46 45 44 44 44 41 36 32 29 24 22 21 19 18 19 21 22 19 18 18 15 14 13 11 12 12 10 12 13 14 14 14 12 12 13 13 12 15 16
 64 64 63 63 62 63 65 66 66 66 61 59 59 60 60 57 53 52 51 50 48 46 44 41 38 37 37 39 40 40 39 36 34 33 36 41 47 48 46 44 44 36 32 34 35 36 39 45 52 55 59 61 60 56 52 50 48 47 47 47 46 44 44 45 45 45 43 40 35 31 29 25 23 23 21 19 19 21 19 17 17 16 14 12 11 11 12 12 11 11 13 13 14 14 14 14 15 14 12 14 14
 62 63 62 61 62 63 64 66 66 65 63 64 63 61 59 55 53 53 54 53 51 50 45 40 39 37 37 38 41 43 42 39 38 36 40 47 51 50 45 44 44 38 32 30 32 35 38 43 49 52 56 61 59 56 51 47 44 41 41 44 44 44 45 46 46 44 42 40 35 32 28 26 23 22 21 19 19 18 16 15 19 16 14 12 11 12 13 13 13 12 12 13 13 14 15 16 16 14 12 12 12
 62 62 62 62 63 63 64 66 67 67 66 64 63 62 58 53 53 55 56 55 53 50 44 40 38 37 37 38 42 45 46 47 48 47 48 49 51 50 47 44 43 38 31 28 29 32 37 41 46 51 54 59 60 58 53 48 45 41 40 41 42 44 45 48 49 47 46 43 37 33 29 26 22 20 20 20 19 18 17 17 21 18 16 14 12 14 13 13 13 12 13 13 13 14 16 16 15 11 9 11 12
 62 61 62 62 63 65 65 66 68 67 66 66 67 66 61 53 54 56 56 52 48 44 40 38 36 36 36 39 43 47 49 51 54 52 50 48 47 47 46 41 41 39 34 29 30 30 34 39 43 48 53 58 63 59 53 51 48 42 40 40 41 43 45 46 48 49 47 43 38 34 29 24 19 18 18 18 19 21 20 19 20 19 16 13 12 13 11 12 13 12 12 13 14 15 16 16 13 9 9 11 12
 60 60 60 60 63 65 65 68 68 68 68 70 73 68 62 56 55 54 53 48 41 37 36 37 36 37 38 40 44 48 51 55 57 56 52 47 44 43 41 39 40 40 34 29 30 30 30 34 39 44 51 58 62 59 54 55 44 40 40 39 40 42 43 43 46 47 46 43 38 32 28 22 18 17 16 16 17 19 18 17 17 18 15 11 11 11 10 12 14 13 12 13 14 15 16 15 14 9 8 11 15
 57 58 59 59 61 64 65 67 68 69 69 70 70 67 61 56 53 52 48 44 39 36 37 39 40 42 43 44 48 51 55 61 62 58 54 50 46 45 44 42 40 37 33 29 27 29 31 31 35 42 48 54 58 55 55 51 46 42 40 38 38 41 43 43 43 46 47 43 36 30 23 19 18 16 16 15 15 16 16 15 17 16 14 12 12 12 13 14 15 14 13 14 14 14 14 15 14 10 7 10 13
 54 55 57 60 63 63 64 65 68 68 65 65 68 68 59 54 51 49 47 42 40 38 40 41 42 45 47 49 52 56 62 68 68 62 56 53 50 48 46 44 40 35 33 28 25 26 28 29 34 41 46 50 52 52 53 51 48 44 41 38 35 37 40 39 38 42 43 38 33 28 23 20 18 17 16 16 15 18 17 18 17 16 14 14 15 15 15 16 15 13 14 14 13 13 14 15 15 12 9 10 12
 54 54 56 61 64 62 63 64 65 64 59 62 67 63 57 53 50 49 44 41 40 39 40 43 45 49 51 52 56 60 67 71 68 64 62 54 48 47 43 42 38 34 31 29 25 26 28 32 37 41 43 46 49 49 51 50 48 44 42 38 33 35 35 35 36 38 36 33 29 26 23 20 18 17 17 17 16 18 19 20 19 18 18 16 16 16 16 16 14 13 14 14 13 13 14 16 16 14 11 11 12
 53 55 58 61 63 60 62 61 59 59 58 60 59 59 57 55 51 47 43 41 41 40 39 42 47 50 52 55 58 63 67 66 66 65 62 52 48 46 43 41 38 33 32 30 28 28 29 33 37 39 39 41 42 45 48 50 49 46 43 39 36 32 30 32 35 35 32 29 27 23 21 20 18 18 19 19 19 19 20 21 21 20 20 19 18 18 17 15 13 13 14 14 13 14 15 16 15 13 11 11 13
 53 55 58 60 57 57 58 57 54 54 55 55 56 56 57 55 50 43 39 38 40 39 39 42 51 54 56 56 59 65 68 67 66 63 57 50 48 47 45 42 39 36 35 34 32 30 27 30 33 32 32 36 38 44 49 51 52 51 46 40 33 29 28 30 31 31 29 26 23 24 23 22 20 18 19 20 19 18 19 21 21 21 21 21 22 20 17 16 13 13 14 15 13 14 15 15 14 13 11 12 12
 53 55 56 58 54 54 56 54 53 51 50 52 54 56 55 54 50 44 37 36 38 38 39 46 53 56 58 57 60 67 69 68 65 60 54 49 47 46 44 43 40 37 36 34 32 30 27 28 30 30 31 34 40 45 48 50 53 54 49 39 32 28 27 26 26 25 24 21 22 22 22 22 19 16 15 20 20 18 18 20 21 22 22 22 20 19 18 16 13 13 14 14 13 14 15 15 15 15 14 12 11
 55 55 56 56 53 52 52 52 52 51 49 49 52 53 52 53 52 45 40 39 41 40 38 44 52 55 58 59 62 66 68 68 64 60 54 48 46 44 42 40 39 37 34 32 31 30 28 29 31 32 32 33 37 42 45 49 51 48 46 40 33 30 27 26 24 22 20 18 19 19 19 19 17 13 14 20 22 21 20 21 23 21 19 18 17 19 18 16 13 13 15 14 13 15 16 16 16 18 17 12 11
 56 56 57 57 53 49 49 50 51 50 48 48 50 49 49 51 48 45 44 45 45 44 44 48 53 57 59 60 63 64 65 64 63 61 53 47 46 44 41 39 38 37 34 32 32 30 28 29 32 33 34 33 35 38 41 48 49 47 43 40 37 32 29 29 26 24 21 18 18 19 18 18 16 14 16 18 21 22 21 22 23 22 19 17 17 16 16 13 10 11 13 13 11 13 15 13 14 16 15 12 11
 53 53 56 57 53 49 48 49 49 50 50 51 50 48 48 48 46 45 49 50 50 50 51 54 57 60 62 62 64 65 64 62 61 60 53 47 45 45 42 37 37 37 36 34 32 30 28 27 30 33 32 31 33 38 43 46 49 47 44 42 37 32 31 29 26 23 22 20 19 19 19 19 18 13 15 17 19 21 20 19 20 19 19 17 15 16 15 11 9 9 10 13 12 11 12 11 11 12 12 11 10
 50 52 54 56 54 50 49 48 49 50 52 51 50 48 48 47 47 48 51 52 52 54 58 61 62 63 63 64 65 67 67 64 61 58 52 43 42 42 40 37 36 36 37 35 31 28 26 26 28 30 28 28 32 38 43 46 47 48 46 42 36 34 30 28 23 21 20 20 19 18 18 17 17 13 15 17 18 18 16 15 20 19 18 15 15 16 16 12 9 7 10 12 12 10 11 10 11 12 12 11 10
 49 51 52 53 52 50 48 47 47 49 51 50 47 48 49 51 52 53 53 54 55 56 59 63 64 65 65 65 66 67 66 64 61 57 49 45 41 41 41 37 34 33 34 31 28 25 25 26 27 27 27 27 31 37 43 46 47 47 47 41 35 33 30 26 24 21 20 20 19 17 17 15 15 14 16 17 18 17 15 15 14 13 13 13 13 16 16 13 10 8 9 11 11 10 10 11 11 13 14 13 11
 48 49 49 49 49 48 48 46 45 47 48 46 45 47 52 55 55 54 53 54 55 56 59 61 63 65 65 65 67 66 65 63 58 55 51 49 43 43 39 34 32 32 34 32 26 25 25 26 26 26 26 28 32 34 37 43 45 45 43 34 31 29 28 26 25 22 21 21 18 16 15 13 13 13 15 18 18 17 15 14 13 10 10 11 12 15 15 14 12 10 9 9 10 10 10 12 13 15 15 15 13
 46 47 48 48 45 46 46 44 45 46 46 44 44 48 52 54 55 54 53 55 57 56 58 61 62 63 64 66 66 66 65 61 55 51 48 43 41 38 36 34 32 32 33 32 28 27 27 26 25 24 25 27 29 32 35 40 41 40 36 30 29 27 27 26 25 23 21 21 18 14 13 12 11 12 15 16 18 18 15 13 13 11 10 9 10 13 15 15 14 13 11 10 11 10 9 12 14 13 14 15 15
 46 48 48 49 47 46 46 46 46 48 47 45 47 49 52 54 54 54 54 57 58 58 58 60 61 62 64 66 66 66 64 61 53 47 44 41 38 38 39 36 33 32 33 33 32 29 27 25 24 24 25 26 28 30 32 35 35 35 33 30 27 25 25 26 24 20 19 19 17 14 13 13 13 13 15 16 17 17 15 13 12 12 10 9 9 10 13 14 14 13 14 12 11 10 9 11 13 12 12 14 15
 48 48 49 51 50 50 51 48 47 48 49 49 50 51 53 54 55 54 55 58 59 59 59 60 61 62 63 65 64 63 61 57 51 49 49 48 44 45 43 38 37 36 36 38 40 36 31 24 26 24 24 24 25 24 26 28 31 33 32 28 25 23 23 24 22 17 16 17 15 13 14 15 15 13 14 13 14 15 15 14 12 11 10 9 10 10 12 13 11 13 14 11 11 10 10 10 11 11 11 13 16
 49 49 51 52 53 52 52 48 47 48 50 50 50 51 52 54 55 55 56 57 58 58 59 59 61 62 62 61 61 60 59 57 57 57 58 58 55 51 47 45 44 42 42 42 45 47 36 28 27 24 22 22 22 22 24 26 28 31 30 24 23 22 22 23 21 16 15 15 14 11 12 15 15 14 14 10 11 14 15 14 12 12 10 13 13 12 13 13 12 12 12 11 10 11 12 11 11 11 12 14 14
 51 52 53 52 52 50 49 49 49 50 51 50 50 52 53 54 55 55 56 57 57 59 59 60 62 62 60 59 61 62 62 62 61 61 61 60 57 54 52 51 49 49 49 46 48 49 42 33 31 26 22 21 22 22 23 24 26 30 28 24 22 21 22 23 20 17 14 14 12 10 12 15 14 14 13 10 9 11 12 13 15 13 13 16 18 15 15 13 11 11 11 10 10 10 12 12 10 11 12 13 12
 53 55 53 51 50 49 49 50 51 51 51 51 51 52 53 54 54 55 55 55 56 59 61 60 61 60 58 58 62 64 63 63 62 61 61 59 57 57 58 57 54 53 53 50 48 48 42 35 31 25 21 20 23 23 23 23 26 28 26 24 23 21 21 20 18 13 12 11 12 10 10 12 12 13 12 10 11 11 10 11 13 14 14 17 18 17 16 13 10 10 11 12 11 10 11 11 11 11 11 12 11
 55 55 53 51 51 50 51 52 52 51 51 50 51 52 52 52 53 54 55 54 56 59 59 59 58 57 55 56 60 64 62 62 61 62 61 58 57 56 57 55 52 51 51 49 46 45 43 37 28 23 20 21 24 24 21 22 24 25 23 22 22 20 20 19 16 12 11 12 13 12 12 14 13 11 9 10 12 12 10 9 11 12 13 15 17 17 17 12 9 10 13 14 12 10 11 12 12 11 11 12 10
 55 54 52 51 51 51 53 54 53 52 51 50 52 53 52 52 53 54 55 56 57 59 58 57 56 54 53 55 58 60 60 59 60 62 63 60 56 53 51 51 48 48 48 45 44 43 42 36 26 21 20 22 25 23 21 22 23 22 20 19 19 20 20 19 17 12 11 10 14 14 15 15 14 12 10 8 10 11 9 9 10 10 11 14 15 16 16 12 9 11 14 14 12 11 12 13 13 11 10 12 11
 53 53 53 52 52 52 54 54 53 52 51 51 54 54 53 51 52 53 54 56 59 59 58 58 56 53 51 53 55 56 55 55 56 59 63 60 57 53 51 48 46 47 45 41 40 38 37 34 27 22 22 22 23 21 19 23 22 20 18 17 17 19 20 19 17 13 11 11 14 15 15 16 14 13 10 8 10 11 9 9 9 8 9 12 14 16 16 14 12 13 14 14 12 12 13 13 13 10 9 10 14
 53 55 55 54 52 52 52 54 55 54 53 54 55 55 53 51 50 51 53 55 57 57 57 55 53 50 50 52 54 55 55 54 54 57 59 59 56 53 50 46 45 45 43 39 38 36 34 34 29 24 24 22 21 20 19 20 21 20 19 17 18 19 20 18 17 13 13 14 14 14 14 14 14 13 13 13 13 13 12 11 8 7 8 10 13 16 16 15 14 13 13 13 14 14 13 13 13 11 11 14 19
 54 56 56 55 53 51 52 54 55 55 54 54 56 55 54 53 51 51 52 55 55 53 52 49 47 47 48 50 52 53 54 56 56 57 57 56 53 50 47 42 42 41 41 40 39 37 36 37 35 27 27 23 22 21 18 18 20 21 21 19 18 19 19 17 15 13 14 13 12 11 10 10 12 14 15 16 16 15 14 12 8 8 10 11 12 15 16 14 12 12 13 13 14 14 13 13 15 16 17 20 20
 55 57 58 56 54 53 54 54 54 53 54 55 56 55 54 54 51 51 54 54 54 53 50 48 46 45 46 48 51 50 51 54 54 54 54 53 51 49 44 39 39 37 38 39 38 38 36 37 37 34 31 24 22 21 19 19 20 20 20 19 18 19 18 16 11 11 11 10 8 9 8 9 11 14 15 16 17 16 14 11 10 11 13 12 13 15 15 13 12 14 14 13 14 15 15 15 18 20 20 21 21
 57 58 58 57 56 55 56 56 55 54 54 56 56 56 55 54 51 52 55 54 54 52 50 47 46 44 43 45 47 47 49 52 52 51 52 53 51 47 42 40 40 38 37 38 37 36 36 37 39 38 31 27 24 21 20 20 18 20 20 18 15 16 15 15 11 9 8 9 9 10 10 10 13 13 14 15 15 13 11 11 11 13 15 14 14 15 14 13 14 16 15 14 15 16 17 17 19 20 21 22 21
 58 58 57 56 56 56 56 57 56 55 55 56 56 57 56 55 53 53 55 56 54 51 48 44 44 43 41 41 43 45 48 51 51 50 51 52 49 43 42 42 42 39 37 36 36 35 37 38 37 35 34 31 24 21 19 18 18 18 19 18 15 12 14 15 14 11 10 10 11 11 11 11 12 13 14 16 15 11 10 11 13 15 17 18 16 15 15 14 15 17 16 14 15 16 17 16 15 17 21 22 21
 57 56 55 55 56 54 53 54 55 55 57 58 57 58 57 55 54 54 56 57 54 52 47 43 42 41 40 40 42 43 45 47 49 48 50 50 47 43 42 42 42 38 34 34 34 35 36 38 35 32 32 29 25 22 19 18 16 16 18 19 16 16 14 15 15 13 11 11 9 10 10 10 10 11 14 16 14 11 10 11 15 15 18 20 18 16 15 13 14 15 14 13 15 16 16 15 14 16 19 20 20
 55 54 54 56 56 54 53 53 54 55 56 56 56 57 56 55 56 56 57 56 52 49 47 43 41 40 39 40 40 40 42 43 44 47 50 49 48 46 44 43 41 36 31 31 31 33 36 36 35 32 29 27 24 22 19 18 17 17 18 19 20 21 16 18 18 16 13 9 8 7 9 9 9 11 13 14 12 9 9 12 14 14 17 20 19 17 15 13 12 14 13 14 16 17 17 15 15 17 18 19 19
 54 54 52 54 56 53 54 54 53 53 52 51 51 53 55 56 56 56 55 53 49 47 46 44 42 40 39 39 39 40 40 40 40 45 46 47 47 46 43 41 40 35 32 31 31 32 35 36 35 31 28 27 24 21 19 18 18 17 17 18 19 18 17 18 19 18 13 9 8 9 9 8 9 11 12 11 11 10 10 13 15 14 17 18 18 19 17 14 14 15 16 17 19 19 17 15 15 16 17 18 17
 55 52 49 51 52 52 52 53 51 49 48 47 48 51 53 54 54 53 51 49 47 45 44 43 41 40 39 40 40 39 39 38 38 40 42 44 45 44 41 38 37 34 32 32 31 31 34 35 34 29 28 25 22 20 18 16 17 16 16 16 17 14 15 16 17 16 13 9 9 10 10 9 10 12 11 11 12 10 9 12 15 16 17 17 19 20 18 15 15 19 18 18 18 18 17 15 13 13 14 14 16
 56 53 50 50 51 48 48 50 49 47 46 45 45 47 50 51 52 51 50 48 45 43 41 41 39 39 40 40 39 38 37 38 37 38 39 42 42 42 39 37 36 33 32 32 31 30 31 33 34 29 24 21 21 21 19 16 16 16 16 15 16 16 16 17 16 14 12 10 11 12 12 10 10 13 11 11 12 11 8 10 15 16 18 18 18 18 17 12 13 17 19 18 16 16 15 15 13 11 12 13 16
 60 56 50 48 47 45 46 47 45 45 46 44 44 45 46 48 50 49 48 46 43 40 37 36 36 37 38 38 37 34 33 33 33 35 36 37 37 38 34 34 33 31 31 32 31 28 28 33 30 24 22 20 21 21 20 17 15 16 16 15 15 15 16 18 17 15 13 12 12 12 12 10 11 11 10 10 13 11 8 11 14 16 18 18 15 15 14 12 9 13 20 17 16 16 16 17 15 13 14 17 18
 59 54 47 45 45 43 45 42 41 43 44 44 44 44 44 46 46 46 45 44 42 40 35 34 33 33 34 33 33 31 29 29 29 32 34 32 31 29 28 29 29 31 31 32 30 28 28 28 26 24 22 20 20 21 19 17 15 14 14 14 14 14 15 16 17 16 16 13 13 12 11 11 9 9 10 13 14 12 11 13 15 16 16 15 14 14 17 12 11 16 18 18 16 16 17 17 16 15 16 17 18
 57 50 46 45 44 43 42 41 40 40 40 41 42 43 44 46 44 44 43 41 42 41 34 32 32 32 32 32 32 30 27 27 27 30 30 30 30 27 25 24 24 27 32 32 30 28 27 26 25 23 21 19 20 19 18 16 14 12 13 15 16 14 13 15 15 14 14 15 16 14 12 11 11 11 14 16 15 13 12 12 13 13 12 13 14 15 17 12 13 17 17 16 16 16 17 18 17 16 16 17 18
 56 50 48 47 45 44 41 41 38 37 38 39 41 42 42 43 42 41 40 39 41 39 34 29 31 33 33 32 31 29 26 25 26 26 26 25 27 25 22 20 19 23 32 32 29 27 26 24 22 21 20 20 21 19 18 17 14 12 14 16 17 15 14 15 14 13 13 15 16 15 13 12 11 13 14 14 14 13 11 10 10 11 10 12 13 12 12 12 15 16 17 18 19 18 20 21 20 18 16 18 20
 60 54 58 55 51 43 41 39 38 39 39 38 39 39 38 39 41 39 38 38 38 37 31 27 31 33 32 31 30 28 26 26 28 26 23 22 24 25 22 20 22 23 28 31 29 26 23 21 21 21 21 22 22 20 19 18 15 13 13 16 17 15 15 16 14 14 15 15 15 16 13 11 11 13 13 12 13 14 13 10 9 9 10 10 10 9 9 10 14 16 18 19 20 21 21 21 22 20 19 20 22
 74 71 67 62 52 44 42 42 43 43 41 39 36 36 35 36 39 37 36 36 35 34 31 30 32 33 32 31 30 29 28 28 29 26 23 22 24 24 24 20 22 22 22 25 27 26 24 21 21 20 20 22 21 20 20 18 15 14 14 16 17 16 15 15 14 14 15 14 14 15 14 12 11 12 11 11 13 15 14 12 9 7 7 6 8 9 9 11 15 17 19 20 21 22 21 22 23 23 22 22 23
 82 80 74 65 56 51 52 51 48 47 45 42 37 36 36 36 38 36 36 35 34 32 33 32 33 34 33 33 31 31 29 28 27 26 25 23 24 24 24 23 22 21 21 23 25 26 24 21 20 20 19 20 20 19 19 17 14 14 15 17 17 14 13 14 13 13 14 14 13 14 12 12 12 11 9 11 13 14 15 13 9 9 9 10 11 11 10 14 17 19 21 21 22 23 22 22 23 23 22 22 22
 80 81 80 75 68 65 60 57 54 51 47 44 40 40 36 38 39 38 37 36 34 32 32 32 33 33 35 35 33 31 30 28 28 28 26 25 24 24 25 24 22 22 22 23 23 24 23 22 22 21 20 20 20 18 17 15 14 13 15 17 15 12 13 12 12 12 13 14 12 9 10 12 13 10 10 11 13 14 15 13 11 13 15 14 13 12 13 17 20 22 22 22 23 23 22 22 23 22 21 22 22
 81 82 84 80 79 71 65 60 57 53 48 45 43 42 41 40 39 39 38 37 36 33 31 32 32 33 36 37 34 33 32 30 29 29 26 25 25 25 25 24 23 23 23 22 21 23 24 25 25 24 22 21 20 18 16 16 14 13 15 15 12 12 12 11 11 12 13 12 9 6 8 13 13 12 12 13 15 14 14 13 14 15 16 15 14 15 18 20 22 22 23 23 22 22 22 22 22 22 22 22 22
 80 82 83 81 78 73 67 63 58 53 50 48 45 44 41 40 38 38 38 37 36 34 33 33 34 36 38 40 37 36 36 34 33 29 27 27 26 26 26 25 23 23 22 18 18 23 25 25 25 25 23 22 20 18 17 16 15 14 14 13 12 13 14 12 12 13 13 12 9 8 10 14 15 13 13 13 14 14 14 15 15 15 15 15 17 20 21 21 22 23 24 23 22 22 22 22 23 22 23 23 22
 79 82 83 81 76 69 66 62 57 52 48 48 45 43 42 39 38 37 37 37 35 35 34 34 34 37 39 41 41 40 41 34 33 31 30 33 34 33 31 27 22 21 21 17 17 22 23 23 23 22 21 20 20 15 15 14 14 14 13 12 14 15 15 14 12 13 14 13 10 10 13 15 13 13 13 12 13 13 13 14 15 14 13 14 16 19 19 19 21 24 25 24 23 22 22 23 23 23 23 22 21
 82 81 80 80 73 65 61 59 54 50 49 47 43 43 43 40 38 38 37 36 35 35 35 34 34 37 40 41 41 41 41 40 37 34 35 39 41 37 34 29 25 25 23 20 19 20 21 21 21 20 19 18 19 13 12 12 13 14 13 13 15 15 16 14 12 13 13 10 8 10 13 13 12 12 13 13 13 13 13 13 14 14 12 12 14 17 18 19 22 24 27 25 24 22 22 22 22 23 22 21 21
 84 84 82 80 73 64 60 56 52 48 48 46 44 43 43 40 37 37 38 38 37 35 34 34 35 38 40 41 41 41 41 38 37 38 41 41 40 36 32 31 30 27 24 22 20 19 20 21 21 20 18 18 17 14 12 11 13 14 14 15 13 12 14 15 13 12 10 8 8 9 11 11 11 11 13 12 13 14 14 13 14 12 11 12 15 18 19 18 21 23 26 25 23 21 21 21 22 22 22 22 22
 88 86 85 81 75 68 63 56 53 49 47 46 45 44 42 40 38 38 39 40 40 38 36 34 35 38 40 41 41 39 38 37 34 40 41 40 37 34 34 33 31 27 25 23 20 19 20 22 21 19 18 18 17 14 13 11 13 14 14 13 12 10 14 16 14 12 11 10 9 8 7 9 9 11 11 12 11 13 13 12 12 13 12 14 17 20 19 18 20 22 23 23 22 20 20 21 22 21 22 23 23
 91 89 86 81 76 72 68 65 60 54 52 50 50 46 43 43 42 41 40 40 41 39 36 34 36 38 40 40 39 36 34 33 32 35 38 35 33 34 34 32 30 27 25 23 22 22 23 23 22 19 18 19 17 15 13 12 13 12 12 12 12 12 14 15 13 13 12 11 10 7 7 7 10 11 12 12 10 11 12 10 11 12 13 16 18 21 20 19 20 21 22 22 21 21 22 23 22 21 21 22 23
 92 91 88 83 81 78 76 75 68 62 58 58 56 52 47 46 48 46 42 40 39 35 34 37 36 39 41 39 36 34 31 30 29 31 31 32 32 32 30 28 27 25 23 23 24 25 24 23 21 19 18 17 16 14 12 11 12 13 12 13 13 14 15 13 12 14 13 12 11 12 10 9 11 13 12 12 11 10 12 12 13 13 15 17 19 20 20 20 21 22 21 21 21 21 22 23 23 21 19 20 22
 94 93 91 88 86 82 81 80 77 70 63 60 57 56 52 50 50 50 48 42 38 34 34 37 39 42 42 39 35 32 29 29 28 26 27 28 30 29 28 27 26 24 22 22 24 25 24 23 21 19 17 14 14 13 11 8 8 11 12 12 13 14 14 13 13 15 15 13 14 14 13 11 10 11 12 11 11 12 13 13 15 14 15 18 20 22 23 23 22 21 20 20 20 21 21 22 21 20 19 20 20
 95 92 90 90 89 87 87 85 80 72 67 64 61 57 53 50 51 53 50 44 40 34 37 40 42 43 41 39 34 30 30 30 30 27 25 29 27 27 27 26 25 23 22 21 23 23 23 21 20 19 16 13 13 13 11 6 6 9 11 10 10 11 12 12 12 13 15 14 15 16 15 12 9 10 11 10 11 14 14 15 15 14 15 18 21 23 25 24 23 21 20 20 22 21 21 20 20 19 21 21 19
 93 90 89 90 92 91 89 86 82 78 73 70 64 58 52 50 49 50 48 44 40 38 40 45 44 42 42 39 35 34 34 32 33 30 29 31 29 26 27 25 24 22 21 21 22 23 22 21 21 21 16 12 12 13 12 8 6 9 10 9 9 9 9 10 9 9 12 14 17 18 16 12 10 10 11 10 11 14 16 16 16 14 15 18 22 24 25 25 24 22 21 21 22 22 22 21 20 20 21 22 20
 95 91 90 90 91 90 88 86 84 80 73 70 65 57 54 49 47 47 48 43 41 40 42 46 46 45 46 44 41 39 38 36 35 35 33 33 30 26 25 25 24 23 21 21 23 24 22 22 24 21 16 13 13 13 13 10 6 8 11 10 9 7 9 10 9 10 13 17 19 18 17 16 13 13 10 10 14 16 17 18 19 18 17 19 23 24 23 24 25 23 22 21 21 22 22 22 21 21 22 23 21
 98 94 92 90 90 88 87 85 81 77 71 69 62 56 54 50 47 47 47 43 41 41 42 44 47 47 48 48 45 42 42 41 39 37 34 32 31 26 24 23 24 23 21 22 24 25 23 23 23 22 18 15 13 13 12 9 7 8 11 11 10 10 11 11 11 14 19 21 22 21 19 19 18 16 13 14 17 18 18 20 21 21 20 20 23 24 22 22 23 23 22 21 20 22 21 22 22 22 22 23 21
 96 95 91 90 90 88 85 81 78 75 71 67 59 54 54 50 45 44 45 45 44 45 45 47 48 46 45 46 44 42 41 41 40 35 33 32 30 27 24 23 22 22 22 24 25 26 23 22 23 21 17 14 13 11 10 10 9 9 10 11 12 12 13 13 15 19 23 24 24 22 20 20 19 18 16 17 18 19 20 22 22 22 21 21 23 23 22 22 22 22 23 22 22 22 21 21 22 21 21 21 20
 95 94 91 90 89 84 79 77 76 74 71 66 56 54 53 48 44 43 45 47 48 49 49 48 48 44 41 41 41 40 39 39 36 33 29 29 27 26 25 24 22 21 22 24 26 25 22 23 22 17 15 14 13 10 9 12 11 10 11 11 11 13 14 16 19 22 23 23 23 21 20 19 19 19 19 19 19 21 22 24 24 23 23 23 23 22 23 23 23 23 24 23 22 22 21 21 21 20 19 20 19
 93 92 91 90 86 81 78 75 75 74 73 66 56 53 50 48 46 46 47 50 50 50 49 47 47 45 41 38 39 36 36 35 34 30 27 28 27 26 26 23 21 20 20 23 24 22 22 24 21 17 14 13 12 9 8 10 11 12 11 11 11 13 14 18 22 24 23 22 21 20 20 20 20 23 23 23 22 23 25 25 25 24 24 23 22 22 23 24 24 25 24 23 23 22 21 21 21 19 17 18 18
 94 92 89 86 83 81 79 77 75 74 73 69 65 60 54 49 51 51 51 52 51 50 47 46 47 45 40 37 34 33 32 32 32 30 28 29 29 29 26 23 21 20 21 22 22 22 22 23 21 15 11 12 10 8 9 10 10 12 11 11 13 16 16 20 25 25 23 22 21 21 22 23 23 24 26 25 25 24 25 25 25 24 23 22 22 22 23 23 24 24 23 22 22 22 21 21 21 20 18 17 18
 95 93 88 84 84 83 81 77 75 74 73 73 74 70 64 59 58 57 53 53 53 51 48 45 46 43 39 32 31 30 30 30 31 29 29 30 29 28 26 24 23 23 22 22 21 21 21 23 22 17 12 10 8 7 9 7 7 8 9 11 14 16 16 19 23 25 25 23 23 24 25 25 24 23 24 24 24 23 23 24 24 23 22 22 22 22 23 23 23 23 22 21 21 21 21 22 22 21 18 18 19
 94 91 87 85 86 84 78 77 74 73 71 72 74 75 72 68 63 60 56 55 55 54 50 45 43 40 39 34 31 30 30 30 30 29 29 28 28 27 27 26 25 24 23 21 21 21 22 21 21 17 11 10 7 6 8 7 6 8 8 10 12 13 14 17 20 24 25 23 23 23 25 25 24 23 23 24 23 22 22 22 22 22 22 22 21 21 24 23 22 23 23 22 21 22 22 23 22 20 17 16 18
 93 89 87 86 88 84 78 74 74 75 75 75 77 75 73 70 67 64 61 57 56 55 50 44 41 42 41 38 35 34 33 32 31 30 29 28 27 27 26 26 25 23 22 21 21 22 22 20 18 14 11 9 8 9 11 11 10 9 10 10 11 13 13 15 18 23 23 22 21 22 23 24 24 24 23 23 23 22 22 21 21 21 21 21 20 21 24 25 24 25 24 22 22 21 22 22 22 20 17 16 17
 94 92 91 89 88 83 75 73 75 77 77 77 77 74 69 70 69 67 63 58 55 51 47 43 43 43 42 39 38 38 36 34 32 31 30 28 27 26 25 24 23 22 22 23 22 22 21 19 17 14 11 9 10 11 14 15 13 11 11 10 12 13 14 16 19 22 22 21 21 22 23 23 23 24 22 22 21 21 21 21 20 20 22 22 20 21 24 25 25 25 25 24 21 20 21 21 21 19 18 18 18
 95 94 91 89 88 86 79 77 77 76 76 77 78 75 72 70 69 67 63 59 54 50 46 43 43 42 41 39 40 41 39 36 32 31 30 28 26 24 23 20 19 21 24 24 22 21 20 19 16 14 12 11 11 12 15 16 12 11 11 11 11 13 15 18 20 21 22 22 23 22 22 23 24 23 22 21 21 21 21 20 19 20 22 23 21 21 23 23 23 24 24 23 20 18 19 19 19 18 17 19 18
 95 94 93 91 89 88 88 86 84 81 78 78 78 76 74 71 69 67 62 58 57 56 51 47 44 43 42 42 42 39 37 35 32 31 31 28 25 23 21 20 19 23 23 22 21 20 20 18 16 14 15 12 12 13 13 12 10 10 11 11 11 13 15 18 19 20 22 22 22 22 22 23 23 22 21 21 22 22 21 19 18 20 22 23 21 19 20 21 20 21 21 20 20 19 19 20 19 18 18 18 17
 95 94 93 92 91 88 91 89 88 85 82 80 79 76 75 71 69 67 64 63 64 63 58 51 47 46 44 43 42 39 38 37 34 32 31 28 26 24 23 22 22 22 21 20 20 21 21 19 17 17 16 12 11 11 11 10 11 12 12 11 11 12 14 19 20 20 21 22 22 22 22 22 22 21 20 21 23 23 21 20 20 21 23 23 22 19 20 19 19 20 19 19 21 22 21 21 21 20 19 17 17
 96 96 96 95 92 90 90 90 87 83 80 80 78 78 75 71 70 68 67 66 65 64 60 54 51 49 46 45 43 40 39 39 36 32 30 29 28 26 24 22 20 21 20 20 22 22 21 19 17 15 12 10 11 12 11 11 12 14 12 10 11 14 19 23 21 19 21 21 22 22 22 21 21 20 20 22 23 23 22 22 22 23 23 23 22 20 18 17 18 19 19 19 20 21 21 21 22 22 20 18 18
 98 99 99 96 93 91 91 90 86 80 78 78 77 76 74 72 71 69 67 65 63 61 59 57 53 51 49 47 45 40 38 39 37 33 30 30 28 26 25 18 18 21 21 21 22 21 20 18 15 10 9 10 12 13 13 12 13 13 12 11 14 19 24 24 21 20 21 22 23 23 22 20 20 20 21 22 23 23 22 22 23 23 23 22 21 19 19 19 17 18 19 19 20 20 20 20 21 22 19 18 18
 97 98 98 96 95 93 91 89 84 80 78 78 76 75 74 73 72 69 67 64 63 62 58 56 53 50 47 47 46 42 39 39 37 33 31 30 27 25 24 19 19 20 21 20 20 19 19 18 15 11 9 10 12 13 13 14 13 12 14 14 17 20 23 23 21 21 22 22 23 23 22 21 21 22 21 21 21 22 22 21 21 21 22 20 20 20 20 22 19 18 18 17 18 19 19 19 20 18 17 17 18
 97 97 97 96 95 94 92 87 83 81 80 75 74 75 74 73 72 70 68 65 65 62 56 52 51 47 45 45 44 41 39 37 35 34 33 32 28 24 20 19 17 19 20 20 19 18 18 19 17 13 12 11 10 12 14 14 11 12 16 17 18 19 21 22 22 22 22 22 22 22 21 21 22 22 21 20 20 21 21 21 19 19 20 19 20 19 21 23 21 18 17 17 17 17 18 19 18 16 14 15 17
 100 99 97 94 93 94 92 86 84 83 80 75 73 73 72 71 71 70 68 67 65 61 54 49 48 44 44 43 41 39 37 36 35 35 34 32 28 18 18 18 18 18 20 21 19 18 19 19 17 14 12 11 11 13 15 12 9 13 19 17 17 18 20 21 22 22 21 21 21 21 21 21 21 20 20 20 20 20 21 21 20 20 22 22 21 20 20 23 21 19 18 18 17 16 16 18 18 17 16 15 16
 100 98 97 94 91 93 91 87 86 83 79 74 72 71 70 70 70 68 66 66 62 56 49 45 44 42 43 42 39 37 37 37 37 36 34 31 26 21 18 20 19 18 20 21 20 19 19 18 17 15 11 11 12 13 13 11 9 14 18 17 18 19 19 20 21 21 21 20 20 21 21 19 17 17 18 19 20 19 20 22 23 23 23 23 22 20 21 22 23 21 20 19 17 16 16 17 18 19 18 16 15
 96 97 96 93 92 92 90 86 85 83 78 75 73 71 71 70 69 66 64 63 57 52 47 45 45 44 44 42 38 37 39 39 38 35 32 31 24 21 19 20 19 17 19 21 23 21 19 18 17 16 12 11 12 11 10 9 9 13 17 18 20 20 19 20 21 21 21 20 20 20 20 17 17 19 19 18 19 18 19 21 22 21 20 20 21 21 21 22 23 23 20 20 19 18 18 19 19 19 18 17 17
 95 95 95 92 91 90 87 85 84 82 80 78 76 73 71 70 68 66 63 60 54 51 48 47 48 48 48 46 41 38 39 38 38 35 32 31 23 21 19 18 18 16 19 22 22 21 20 19 18 16 14 13 11 9 9 9 10 15 18 20 22 21 19 20 20 20 20 20 20 20 19 16 18 21 20 19 19 18 19 19 19 19 19 18 19 20 20 20 21 21 19 19 20 20 20 20 19 19 18 17 16
 93 92 92 91 91 87 86 83 81 80 79 78 75 74 71 69 69 68 64 63 62 56 51 48 50 50 50 48 42 38 37 36 36 35 34 29 23 21 18 18 16 16 18 20 20 19 19 18 16 16 16 14 11 9 9 10 12 16 17 19 22 21 20 19 19 19 19 20 21 20 17 15 18 20 20 19 18 18 17 16 17 18 19 18 18 19 19 20 20 19 19 20 21 20 20 20 20 18 17 16 16
 92 90 88 89 89 86 84 80 79 79 78 77 75 74 71 70 71 69 65 66 68 59 53 50 49 49 48 46 41 37 35 34 32 32 32 32 24 20 18 16 15 16 17 17 18 19 19 19 16 16 15 12 10 9 10 11 11 12 14 18 22 23 21 19 19 19 19 20 21 20 18 18 20 20 19 17 17 17 17 15 15 18 20 20 19 18 19 20 20 21 21 21 20 19 19 20 19 18 17 17 18
 90 88 86 86 87 86 82 80 80 80 79 78 76 73 72 71 70 69 65 65 63 55 55 53 51 47 45 40 38 35 33 31 30 30 33 31 23 19 17 16 16 16 16 17 18 20 20 19 17 15 14 11 10 10 11 12 11 10 12 15 21 22 20 18 19 19 19 20 21 21 21 21 21 21 21 18 17 19 18 16 16 17 20 20 19 18 18 19 20 22 22 22 20 18 18 19 18 17 19 20 20
 88 87 87 85 85 84 80 79 80 78 77 77 77 75 74 74 70 68 65 63 60 57 55 53 49 46 43 38 38 33 30 30 30 31 30 27 22 20 19 19 18 16 16 18 21 22 20 18 17 16 13 12 12 11 10 11 10 10 12 14 18 20 19 19 18 19 20 20 20 21 21 21 21 22 23 19 17 18 18 19 18 18 19 20 19 18 18 18 21 22 22 22 20 18 17 17 17 17 18 19 20
 86 86 86 86 85 81 78 76 77 74 72 74 76 75 75 74 69 68 64 60 58 57 55 50 46 44 41 39 37 35 31 30 31 30 27 25 21 20 20 19 18 17 17 18 21 23 21 18 16 14 12 12 13 13 12 11 10 10 11 13 17 20 20 19 18 18 18 18 18 20 20 20 20 21 21 18 18 17 19 20 19 18 19 20 19 19 18 18 21 22 22 22 20 18 18 19 18 17 18 19 20
 86 84 85 84 81 79 77 74 73 72 70 72 73 73 73 71 69 67 62 57 55 55 52 47 46 43 40 37 37 35 32 30 29 27 24 22 21 19 18 18 17 16 16 17 19 22 22 17 14 11 10 12 13 13 13 11 9 9 10 12 16 19 20 19 17 17 16 15 16 20 21 19 19 21 22 19 17 17 17 18 18 17 19 21 22 21 19 20 21 22 22 21 20 20 20 21 20 17 18 19 19
 87 84 84 83 81 79 78 74 72 71 69 70 71 72 69 68 67 65 59 57 55 52 48 46 44 42 38 36 35 34 31 28 27 25 22 21 20 19 17 16 15 15 16 17 18 21 20 16 14 12 11 12 13 12 11 11 11 10 10 13 18 19 20 21 20 19 18 17 18 21 20 18 18 21 23 20 18 17 16 17 17 18 20 22 24 22 21 20 21 21 19 18 20 20 21 21 20 19 20 20 19
 88 85 84 83 82 81 81 79 75 70 68 67 68 69 68 68 68 64 61 59 56 54 48 46 42 40 37 34 34 33 29 28 28 25 23 21 20 18 16 14 16 16 17 17 18 20 19 16 13 12 11 12 12 11 10 11 12 11 10 14 18 19 19 20 21 21 20 19 20 21 20 17 17 20 22 20 18 19 18 17 18 19 19 21 22 21 20 19 19 20 18 17 19 20 21 22 21 20 20 20 19
 88 85 84 83 82 81 81 79 74 69 67 67 66 65 66 68 66 61 60 58 56 53 49 47 42 38 35 33 33 31 27 26 26 25 24 23 20 18 17 16 17 18 17 17 18 21 20 15 13 12 11 11 10 9 11 13 12 11 12 16 20 19 17 17 19 19 19 19 20 20 20 18 18 20 22 18 18 19 19 18 18 18 17 19 20 20 19 18 18 19 19 18 19 20 21 22 22 21 20 19 19
 86 84 83 82 81 80 79 75 73 70 69 67 65 63 63 64 61 58 58 57 55 52 48 47 41 36 34 32 33 28 26 24 24 24 23 22 21 19 19 18 18 18 16 16 19 21 20 17 15 13 12 9 8 7 10 12 10 10 11 17 20 19 18 17 19 18 18 20 20 20 21 20 18 20 21 19 20 20 18 17 18 18 18 19 20 20 19 17 18 19 19 18 19 20 21 21 22 22 18 18 17
